# .PCD v0.7 - Point Cloud Data file format
VERSION 0.7
FIELDS x y z rgb
SIZE 4 4 4 4
TYPE F F F U
COUNT 1 1 1 1
WIDTH 1049
HEIGHT 1
VIEWPOINT 0 0 0 1 0 0 0
POINTS 1049
DATA ascii
-0.072740495 0.02982877 0.028091673 10053993
-0.071273729 0.030043453 0.028091613 9923178
-0.069807574 0.03025829 0.028091757 9793648
-0.068342045 0.030473102 0.028091947 6315614
-0.066877112 0.0306882 0.028092459 4539717
-0.06541279 0.030903546 0.028093247 4605510
-0.063950129 0.031104857 0.02808249 9859698
-0.062494311 0.031218907 0.027999515 11035748
-0.061038911 0.031329535 0.027913732 10382444
-0.059598699 0.03121797 0.027643794 11167334
-0.058153216 0.031174775 0.027430445 11101284
-0.05674303 0.030565133 0.026747214 7498346
-0.055967741 0.01950285 0.017391089 3026221
-0.054995049 0.010970125 0.010128454 2241315
-0.052657019 0.025870556 0.022316171 2911279
-0.051191878 0.025936689 0.022191944 3242548
-0.049726706 0.026002828 0.022067711 3572281
-0.048261508 0.026068963 0.021943478 3901759
-0.046796285 0.026135052 0.021819208 4166210
-0.045331027 0.026201196 0.021694968 3838269
-0.043865748 0.026267335 0.021570729 6401639
-0.042400438 0.026333475 0.021446489 7973486
-0.040935107 0.026399575 0.021322204 8630134
-0.039469741 0.026465718 0.02119796 6862186
-0.03800435 0.026531862 0.021073712 6336864
-0.036538932 0.026598008 0.020949464 6141021
-0.035073489 0.026664114 0.02082517 6536295
-0.033608016 0.026730264 0.020700917 4433220
-0.032142516 0.026796371 0.020576619 5748059
-0.030676989 0.026862523 0.02045236 4827470
-0.029211434 0.026928674 0.020328101 4497989
-0.027745852 0.026994828 0.020203838 4760138
-0.026280243 0.027060989 0.020079568 4100686
-0.024814606 0.027127098 0.019955264 3704157
-0.023348941 0.027193258 0.019830994 4163698
-0.021883249 0.027259327 0.019706644 3310188
-0.02041753 0.027325446 0.019582327 2981479
-0.018951783 0.02739156 0.019458015 5742990
-0.017486008 0.027457682 0.019333694 2127958
-0.016020207 0.027523801 0.019209377 5415258
-0.014554377 0.027589876 0.019085016 10133372
-0.013048894 0.011195258 0.0051752762 7830601
-0.011427096 -0.014770645 -0.016761582 6786899
-0.084492914 0.025825424 0.028093791 8416878
-0.08301837 0.026041593 0.028093601 9726570
-0.081544466 0.026257677 0.028093431 9857128
-0.080071181 0.026473694 0.028093265 9856871
-0.078598537 0.026689626 0.028093118 6906980
-0.077126525 0.026905438 0.028092943 7300967
-0.075655155 0.027121034 0.028092669 6841444
-0.07418444 0.027336318 0.028092219 4737096
-0.072714314 0.027551996 0.028092155 4868682
-0.071244791 0.027767863 0.028092341 5000011
-0.069775909 0.027983615 0.028092496 7235431
-0.068307653 0.028199289 0.028092664 9988200
-0.066839993 0.028415294 0.028093191 9464683
-0.065372944 0.028631551 0.028093996 9268846
-0.063906543 0.028847544 0.028094662 7038566
-0.062444009 0.029018253 0.028058019 6052442
-0.060996808 0.028974364 0.027844213 9269874
-0.059551321 0.028897479 0.027603084 7037024
-0.058705345 0.019598961 0.019741692 4539717
-0.057223167 0.019765723 0.019699346 5066061
-0.055817936 0.018672161 0.018614935 2829099
-0.053925857 0.02580669 0.024335658 3228463
-0.05246301 0.025872746 0.024211666 1926180
-0.051000141 0.025938714 0.024087593 2257193
-0.049537241 0.026004771 0.023963595 3243830
-0.048074316 0.026070783 0.023839559 4230982
-0.046611365 0.026136803 0.023715517 3837760
-0.045148384 0.026202818 0.023591476 3312695
-0.043685377 0.026268834 0.023467433 5877343
-0.04222234 0.026334858 0.023343382 6005853
-0.040759277 0.026400875 0.023219334 7388537
-0.039296184 0.026466943 0.023095323 6010727
-0.037833069 0.02653297 0.022971265 6797165
-0.036369924 0.026598994 0.022847211 8110461
-0.034906752 0.026665019 0.022723155 8242304
-0.033443552 0.02673105 0.022599092 7453555
-0.031980325 0.026797077 0.02247503 8504965
-0.03051707 0.026863152 0.022351004 7387506
-0.029053789 0.026929187 0.022226935 5089621
-0.02759048 0.026995219 0.022102866 3250493
-0.026127143 0.027061252 0.021978797 2458688
-0.024663778 0.027127337 0.021854758 3902056
-0.023200387 0.027193325 0.021730646 6660755
-0.02173697 0.02725932 0.021606529 3770741
-0.020273525 0.027325315 0.021482408 2192733
-0.018810051 0.027391355 0.021358328 3770736
-0.017346552 0.027457355 0.021234201 4229225
-0.015883023 0.027523397 0.021110117 6858858
-0.014419466 0.027589349 0.02098595 9341549
-0.012905271 0.0082319705 0.0046505597 7439954
-0.011273316 -0.017924843 -0.017372059 7706212
-0.08448866 0.023532968 0.028094292 4737096
-0.083011352 0.023750046 0.028094115 4868682
-0.081534684 0.023967052 0.028093947 4934475
-0.080058649 0.024183927 0.028093763 4802889
-0.078583248 0.024400774 0.028093625 4737096
-0.07710851 0.024617175 0.028093196 4802889
-0.075634412 0.024833448 0.028092748 4868425
-0.074160904 0.025050156 0.028092725 4605510
-0.072688006 0.025267018 0.028092906 4473924
-0.071215741 0.025483759 0.02809306 4473924
-0.06974411 0.025700463 0.028093271 4737096
-0.068273127 0.025917005 0.028093411 5657941
-0.066802733 0.026133927 0.028093949 5921113
-0.065344855 0.026193693 0.027965358 5723477
-0.063905716 0.025997616 0.027626336 4671303
-0.062784545 0.021325504 0.023604613 4276288
-0.061377846 0.020485904 0.022734493 8415850
-0.059999347 0.019165913 0.021468414 8483442
-0.058647927 0.017334469 0.019780399 5591891
-0.057165522 0.017462991 0.019705968 6315614
-0.055686779 0.017534934 0.019584941 4868425
-0.053730186 0.025808897 0.026225016 2312231
-0.052269608 0.025874836 0.026101211 2124328
-0.050809 0.02594077 0.02597741 2388781
-0.049348369 0.026006663 0.025853567 2849842
-0.047887705 0.026072601 0.025729762 3048244
-0.046427019 0.026138492 0.025605919 2917938
-0.044966303 0.026204437 0.025482103 3313468
-0.043505557 0.026270378 0.025358293 4892245
-0.042044789 0.026336279 0.025234437 3446849
-0.040583991 0.026402222 0.025110621 6208364
-0.039123166 0.026468121 0.024986766 5880167
-0.037662316 0.026534073 0.024862941 10203006
-0.036201436 0.02660002 0.024739118 11182967
-0.03474053 0.026665928 0.024615251 11246963
-0.033279594 0.026731879 0.024491424 10787695
-0.031818636 0.026797783 0.024367558 11181685
-0.030357646 0.026863741 0.024243722 10526836
-0.028896632 0.026929649 0.024119852 6532456
-0.027435588 0.026995605 0.023996016 3381828
-0.025974518 0.02706152 0.023872135 2982987
-0.02451342 0.027127478 0.023748295 5805949
-0.023052296 0.027193397 0.023624411 8231822
-0.021591144 0.027259311 0.02350053 3507825
-0.020129966 0.027325232 0.023376642 3179115
-0.01866876 0.027391154 0.02325275 6201227
-0.017207526 0.027457071 0.023128862 6395771
-0.015746264 0.02752295 0.023004929 8039543
-0.014284975 0.02758887 0.022881037 8356197
-0.012760851 0.0052522901 0.0041229804 7115101
-0.01111865 -0.02109723 -0.017986048 7969125
-0.084484383 0.021231906 0.028094789 5263440
-0.083004303 0.021449946 0.02809466 5197390
-0.081524864 0.021667821 0.028094463 5066061
-0.08004608 0.021885473 0.028094172 4737096
-0.078567944 0.022102864 0.028093742 4539717
-0.07709045 0.022320176 0.028093329 6710115
-0.075613543 0.022537878 0.028093301 9530990
-0.074137248 0.022755729 0.02809348 7892333
-0.072661594 0.022973506 0.02809367 5131854
-0.07118658 0.023191158 0.028093837 4802889
-0.069719553 0.023318868 0.028020453 4605510
-0.068265244 0.023290001 0.027818885 5262926
-0.067129515 0.019144086 0.02424488 6840673
-0.065646768 0.01936263 0.024244837 7432553
-0.064164735 0.019580076 0.024243975 7432810
-0.062713839 0.019367794 0.023890849 7892076
-0.061294325 0.018681416 0.023148723 9927290
-0.059916988 0.017312866 0.021846497 11038318
-0.058579121 0.015235198 0.019961538 9791335
-0.057107665 0.015151709 0.019712612 9597297
-0.055621356 0.015303888 0.019657148 8611944
-0.053535119 0.025811179 0.028108584 5797459
-0.052076802 0.025876949 0.027984938 6850908
-0.050618451 0.02594276 0.027861333 6983006
-0.049160074 0.026008626 0.027737755 6918238
-0.047701672 0.026074395 0.027614107 6853469
-0.046243243 0.026140217 0.027490489 6987108
-0.044784784 0.026206082 0.02736691 3050553
-0.043326303 0.026271857 0.027243251 2657847
-0.041867789 0.026337726 0.027119668 7251304
-0.040409252 0.026403505 0.026996005 7382633
-0.038950682 0.026469376 0.026872419 7580527
-0.037492089 0.0265352 0.026748791 6337644
-0.03603347 0.026600983 0.026625121 6927987
-0.034574822 0.026666859 0.026501527 10331000
-0.033116147 0.026732692 0.02637789 8368762
-0.031657446 0.026798474 0.026254218 8696443
-0.030198716 0.026864311 0.026130576 8172153
-0.028739959 0.026930191 0.026006972 7122031
-0.027281176 0.02699603 0.025883326 7186029
-0.025822366 0.027061818 0.025759645 5017957
-0.024363527 0.027127659 0.025635995 6855045
-0.022904662 0.027193498 0.025512345 9278601
-0.02144577 0.027259342 0.02538869 7181189
-0.019986851 0.027325135 0.025265001 5609350
-0.018527905 0.027390935 0.025141304 5151620
-0.01706893 0.027456736 0.025017604 3640419
-0.015609928 0.027522532 0.024893908 8825979
-0.014150325 0.026884664 0.024187075 8355677
-0.012615627 0.0022559806 0.0035924378 8034424
-0.010963087 -0.024288055 -0.018603643 9870199
-0.084480092 0.018922219 0.028095311 10121585
-0.082997233 0.019141126 0.028095152 10186864
-0.081515044 0.019359639 0.028094737 10252400
-0.080033496 0.019578025 0.028094299 8088684
-0.078552589 0.019796284 0.028093841 5131597
-0.077072263 0.020015072 0.028093882 6118235
-0.075592563 0.020233918 0.028094055 9267561
-0.074124299 0.020330049 0.027994284 9068383
-0.072691932 0.020008987 0.027554404 8611944
-0.071552217 0.016169338 0.024244752 8876658
-0.070064768 0.016389167 0.024244791 9009529
-0.068577953 0.016608875 0.024244804 9009272
-0.067091793 0.016828457 0.024244795 8811636
-0.065606333 0.017047083 0.024244076 9270388
-0.064121574 0.017264843 0.024242729 10187892
-0.062662385 0.017129513 0.023952948 7958383
-0.061231643 0.016565962 0.023313019 7104873
-0.059838861 0.015388651 0.022170922 10973296
-0.058510419 0.013124486 0.020139193 7234917
-0.057048287 0.012852879 0.019736515 6381150
-0.055559065 0.013008879 0.019683631 6052185
-0.053340659 0.025813378 0.029986272 9072726
-0.051884588 0.025879072 0.029862856 9273181
-0.050428491 0.02594481 0.02973948 8424033
-0.048972365 0.026010508 0.02961606 8162657
-0.047516212 0.026076248 0.02949268 8295525
-0.046060037 0.026141947 0.029369256 7577193
-0.044603828 0.026207691 0.02924587 2657591
-0.043147597 0.026273394 0.029122442 3381059
-0.041691337 0.026339091 0.028999016 8102764
-0.040235046 0.026404845 0.028875619 8758384
-0.038778733 0.026470546 0.028752187 7711601
-0.037322391 0.026536301 0.028628787 3776845
-0.035866022 0.026602006 0.028505351 5286499
-0.034409627 0.026667763 0.028381947 7843705
-0.032953203 0.026733469 0.028258508 6138988
-0.031496756 0.026799183 0.028135061 6007657
-0.030040277 0.026864944 0.028011648 5876582
-0.028583772 0.026930656 0.027888203 6859117
-0.027127242 0.026996372 0.027764749 7250542
-0.025670683 0.027062133 0.027641336 4557409
-0.024214098 0.027127853 0.027517879 6394238
-0.022757484 0.027193617 0.027394461 9017484
-0.021300845 0.027259292 0.027270962 8032386
-0.01984418 0.027325016 0.027147498 6002821
-0.018387485 0.027390735 0.027024036 3443309
-0.016930765 0.027456416 0.02690053 2853461
-0.015474015 0.027522143 0.026777059 8366968
-0.014013637 0.02404554 0.023728065 7571547
-0.012469592 -0.00075699994 0.0030589732 9085333
-0.0844758 0.016603738 0.028095769 7170409
-0.082990177 0.016823193 0.028095312 7236202
-0.081505202 0.017042575 0.028094865 7367788
-0.080022328 0.017246637 0.028082065 6775908
-0.078548148 0.017364467 0.027999362 5197390
-0.077490151 0.012958505 0.024244688 4802632
-0.075997323 0.013179617 0.024244707 5855063
-0.074505143 0.013400554 0.024244668 6644579
-0.073013611 0.013621464 0.024244677 6841701
-0.07152272 0.013842291 0.024244705 6315871
-0.070032477 0.014063001 0.024244703 6250078
-0.068542875 0.014283626 0.024244722 6315871
-0.067053981 0.014503387 0.024244109 6315871
-0.065565787 0.014722186 0.024242794 6644579
-0.064078242 0.014940864 0.024241451 8811379
-0.062608875 0.014910115 0.024037072 6118492
-0.061169583 0.014431799 0.023468047 4802889
-0.059769988 0.013316351 0.022379553 9141372
-0.058459595 0.010724019 0.020086585 4737096
-0.056989972 0.010524822 0.019743554 4013373
-0.055496141 0.010712311 0.019715782 5195073
-0.053146794 0.025815615 0.03185821 9923406
-0.05169297 0.025881188 0.031734988 8426086
-0.050239116 0.025946809 0.0316118 5607761
-0.048785236 0.026012426 0.031488612 5543763
-0.047331329 0.026078004 0.031365383 5480277
-0.045877393 0.026143629 0.03124219 4300102
-0.044423431 0.026209252 0.031118996 3644480
-0.042969439 0.026274927 0.030995835 3907653
-0.041515425 0.026340505 0.030872602 4892502
-0.040061384 0.026406135 0.030749397 5942372
-0.038607314 0.026471768 0.030626193 5088604
-0.037153218 0.026537349 0.030502953 3709003
-0.035699092 0.026602983 0.030379742 4036690
-0.034244943 0.026668621 0.03025653 4167509
-0.032790765 0.026734253 0.03013332 3838801
-0.031336561 0.026799845 0.030010067 3707468
-0.029882327 0.026865527 0.02988689 3511112
-0.028428068 0.026931122 0.029763632 3642698
-0.026973782 0.026996812 0.029640445 3379016
-0.025519468 0.027062405 0.029517187 2654023
-0.024065128 0.02712805 0.02939396 4229735
-0.022610761 0.027193697 0.029270729 4885873
-0.021156367 0.027259341 0.029147502 4294251
-0.019701947 0.027324943 0.029024232 8361091
-0.018247498 0.027390499 0.028900921 2720352
-0.016793024 0.027456105 0.028777646 2986323
-0.015338521 0.027521711 0.028654367 5414488
-0.01387621 0.021191122 0.023266615 5408329
-0.012322739 -0.0037868933 0.0025224914 9743016
-0.084475279 0.014239426 0.028066285 4473924
-0.083014481 0.014183399 0.027842514 4210752
-0.081962608 0.009952276 0.024244562 4473924
-0.080465019 0.010174592 0.024244575 5263183
-0.07896807 0.010396829 0.024244603 7433067
-0.077471778 0.010618944 0.024244605 7300967
-0.075976133 0.010840978 0.024244623 6841444
-0.074481137 0.011062935 0.024244657 6184285
-0.072986804 0.011284722 0.024244627 6250078
-0.071493104 0.011506472 0.024244655 5460819
-0.07000006 0.0117281 0.024244657 4934475
-0.068507701 0.011949095 0.024244219 4934475
-0.06701608 0.012168844 0.024242857 4868682
-0.065525092 0.012388567 0.024241541 4868682
-0.064034753 0.012608116 0.024240168 6381664
-0.06255395 0.012700536 0.024135698 4605510
-0.061108209 0.012277693 0.023612935 3881787
-0.059701543 0.011228021 0.022580869 5789527
-0.058404125 0.0083839074 0.020090504 3026478
-0.056931436 0.0081880521 0.019750612 4276288
-0.055581857 0.0058952575 0.017706024 6840664
-0.05295353 0.025817789 0.03372433 7702112
-0.051501941 0.025883289 0.033601336 6132311
-0.050050326 0.025948783 0.033478346 4427327
-0.048598681 0.026014334 0.033355385 5152328
-0.04714701 0.026079837 0.033232383 6730077
-0.045695312 0.026145335 0.033109386 7911785
-0.044243585 0.026210889 0.032986417 6600797
-0.042791836 0.026276397 0.032863412 6141019
-0.041340061 0.026341906 0.032740403 6796645
-0.039888255 0.026407409 0.032617398 5614678
-0.03843642 0.026472921 0.032494381 5088080
-0.036984563 0.026538482 0.032371406 4429128
-0.035532676 0.026603995 0.032248385 3702850
-0.034080762 0.026669506 0.032125372 2843191
-0.032628823 0.026735069 0.032002386 2710579
-0.031176856 0.026800588 0.031879362 2579762
-0.029724862 0.026866101 0.031756341 2582069
-0.028272843 0.026931621 0.03163331 2782520
-0.026820794 0.026997192 0.031510316 2917435
-0.02536872 0.027062714 0.031387284 2918973
-0.023916619 0.027128192 0.031264212 3443784
-0.02246449 0.027193759 0.031141216 3443273
-0.021012334 0.027259286 0.031018177 3575116
-0.019560153 0.027324768 0.030895097 7380850
-0.018107943 0.027390298 0.030772053 2789190
-0.016655708 0.027455783 0.030648969 3449419
-0.015203444 0.027521309 0.030525927 5020753
-0.01373804 0.018321188 0.022802606 4949828
-0.012175059 -0.0068344413 0.0019824682 10006963
-0.084955446 0.0071543609 0.024244515 4802889
-0.083453715 0.0073778084 0.02424453 4671303
-0.081952646 0.0076011289 0.024244525 6249821
-0.080452219 0.0078244228 0.024244566 4802889
-0.078952447 0.008047536 0.024244554 6052699
-0.07745333 0.0082705757 0.024244554 6710115
-0.075954869 0.0084935362 0.024244569 6381407
-0.074457049 0.0087164221 0.024244595 5657941
-0.072959892 0.0089391759 0.024244605 6381407
-0.071463384 0.0091618076 0.02424459 6578529
-0.069967553 0.0093839904 0.024244286 6052699
-0.068472482 0.0096047418 0.024242908 5986906
-0.066978045 0.0098254625 0.024241582 5921113
-0.065484241 0.010046104 0.02424027 5789527
-0.0639911 0.010266576 0.024238894 5657941
-0.062505245 0.010391521 0.02416034 4671303
-0.061057501 0.0099559957 0.023628358 3552822
-0.059652735 0.0088302558 0.022537511 4737096
-0.05839517 0.0052967225 0.019496741 3552822
-0.056905873 0.0052996301 0.01931802 3552822
-0.05421019 0.025754593 0.03570753 5726290
-0.052760862 0.02581997 0.035584729 5276239
-0.0513115 0.025885396 0.035461966 3900477
-0.049862117 0.025950776 0.035339162 3246131
-0.048412699 0.026016206 0.035216391 4167748
-0.04696326 0.026081635 0.03509362 7449965
-0.045513794 0.026147014 0.034970816 9218165
-0.044064298 0.026212446 0.034848038 5876319
-0.042614777 0.026277879 0.03472526 7318636
-0.041165229 0.026343314 0.034602478 5941086
-0.039715659 0.026408704 0.034479659 3905089
-0.038266055 0.026474142 0.034356877 4163395
-0.036816426 0.026539529 0.034234058 3894589
-0.035366774 0.026604969 0.034111269 3233842
-0.033917088 0.026670411 0.033988476 3564082
-0.03246738 0.026735853 0.033865683 3827253
-0.031017646 0.026801251 0.033742849 3760179
-0.029567884 0.026866697 0.033620052 3496241
-0.028118094 0.026932096 0.033497214 3629877
-0.026668279 0.02699754 0.033374418 5081930
-0.025218435 0.027062943 0.033251576 5678159
-0.023768565 0.027128441 0.033128805 4955715
-0.022318669 0.027193846 0.03300596 4364606
-0.020868745 0.0272593 0.032883149 4956235
-0.019418795 0.027324708 0.0327603 6663782
-0.017968819 0.027390111 0.032637455 4631632
-0.016518814 0.027455479 0.032514557 4699218
-0.015068782 0.027520891 0.032391701 5611351
-0.013599119 0.015435734 0.022336131 5738578
-0.012026537 -0.0099016475 0.0014373659 8167051
-0.084951133 0.004792429 0.024244478 5855320
-0.083446562 0.00501676 0.024244444 4671303
-0.08194264 0.0052410588 0.024244467 6973030
-0.080439374 0.0054652728 0.024244508 6250078
-0.078936771 0.0056893225 0.024244484 4934218
-0.077434815 0.0059132869 0.02424448 8352113
-0.075933516 0.0061371773 0.024244487 6710115
-0.074432872 0.0063609886 0.02424451 4934475
-0.072932884 0.0065847198 0.024244549 6381407
-0.071433567 0.0068080439 0.024244342 7564139
-0.069935016 0.0070298472 0.024242982 7563882
-0.068437114 0.0072515709 0.024241637 7498346
-0.066939853 0.0074732159 0.024240309 7498346
-0.065443248 0.0076946868 0.024238922 7498346
-0.063947365 0.0079148216 0.024236532 8023662
-0.062459711 0.0080257179 0.024146169 6775651
-0.061009686 0.0075797173 0.023606798 4934218
-0.059605472 0.0063961954 0.022472313 6315871
-0.058300957 0.0035439236 0.019990798 6313815
-0.056802008 0.0036806569 0.019920109 5853521
-0.05401589 0.025756849 0.03756199 3888692
-0.052568778 0.0258222 0.037439454 4817976
-0.051121641 0.025887506 0.037316881 4821556
-0.049674481 0.025952812 0.037194304 5087286
-0.048227288 0.02601812 0.037071727 6205257
-0.046780076 0.02608343 0.036949147 8240234
-0.04533283 0.02614874 0.036826562 8764529
-0.043885559 0.026214052 0.036703978 5679949
-0.042438265 0.026279362 0.036581397 7318884
-0.040990938 0.026344676 0.036458809 5020745
-0.039543588 0.026409991 0.036336217 3175221
-0.038096212 0.026475308 0.036213621 4812877
-0.036648806 0.026540676 0.036091063 5009742
-0.035201374 0.026605995 0.035968468 5342033
-0.03375392 0.02667127 0.035845827 6134105
-0.032306436 0.026736593 0.035723228 6793057
-0.030858923 0.026801964 0.035600659 7187557
-0.029411387 0.026867241 0.035478014 7911536
-0.027963821 0.026932616 0.035355445 8898691
-0.026516229 0.026997944 0.035232835 8569733
-0.025068613 0.027063226 0.035110183 7122798
-0.023620967 0.027128603 0.034987606 5480530
-0.022173295 0.027193936 0.034864988 4101949
-0.020725597 0.027259268 0.034742367 6203995
-0.019277871 0.027324604 0.034619745 8172655
-0.017830119 0.027389891 0.034497086 7716971
-0.01638234 0.027455181 0.03437442 7981420
-0.014934534 0.027520521 0.034251794 8959611
-0.013459442 0.012534528 0.02186708 7051882
-0.011877176 -0.012986292 0.00088909664 5801813
-0.084946811 0.0024214939 0.024244415 6644322
-0.08343938 0.0026468036 0.024244411 4737096
-0.081932597 0.0028720289 0.024244426 5460819
-0.080426484 0.0030971791 0.024244454 7104359
-0.078921027 0.0033221599 0.024244418 5986906
-0.077416226 0.0035471034 0.024244441 8549235
-0.075912088 0.0037719246 0.024244439 7235945
-0.074408598 0.0039966609 0.024244457 4802889
-0.072905779 0.0042212331 0.024244411 5395026
-0.071403749 0.0044440357 0.024243036 6447200
-0.069902353 0.0046668118 0.02424171 7038823
-0.06840162 0.0048894607 0.024240362 6973030
-0.066901542 0.0051117986 0.024238842 6578529
-0.065402195 0.005332985 0.02423647 6644322
-0.063903488 0.0055540456 0.024234079 7826540
-0.062414002 0.0056508458 0.024131952 9072495
-0.060961697 0.005194244 0.023585146 7102560
-0.059558582 0.0039438009 0.022399992 7760490
-0.058244683 0.0011795484 0.019996939 6313044
-0.056743875 0.0013009254 0.019913383 8739675
-0.053822186 0.025759131 0.039410796 5795399
-0.052377287 0.025824362 0.03928845 6198339
-0.05093237 0.025889596 0.039166104 6661702
-0.049487423 0.025954783 0.039043717 6598467
-0.04804245 0.026020018 0.038921367 7387215
-0.046597451 0.026085207 0.038798977 8765287
-0.045152422 0.026150398 0.038676586 8174434
-0.043707367 0.026215637 0.038554229 6400584
-0.04226229 0.02628083 0.038431831 8301927
-0.040817183 0.026346073 0.03830947 5273928
-0.039372049 0.026411274 0.038187064 4285758
-0.03792689 0.026476517 0.0380647 8030304
-0.036481701 0.026541717 0.037942294 7182943
-0.035036489 0.026606964 0.037819922 7251300
-0.033591248 0.026672166 0.037697513 7120486
-0.032145981 0.026737416 0.037575141 7317865
-0.030700689 0.02680262 0.037452724 8104302
-0.029255368 0.026867872 0.037330348 8760179
-0.02781002 0.026933078 0.037207928 8237945
-0.026364649 0.026998291 0.037085503 9159820
-0.024919247 0.027063549 0.036963116 8173175
-0.02347382 0.027128806 0.036840729 5612117
-0.022028368 0.027194018 0.036718301 3839294
-0.020582886 0.027259277 0.036595911 6071904
-0.019137379 0.027324492 0.036473479 7646831
-0.017691847 0.02738966 0.03635101 7320428
-0.016246285 0.027454877 0.036228575 7452781
-0.014800698 0.027520102 0.036106132 9152119
-0.013319004 0.0096175279 0.021395497 7642739
-0.011726968 -0.016088344 0.00033779728 4882239
-0.010114539 -0.027401669 -0.0090404395 3289650
-0.0085484805 -0.027459789 -0.0092776101 3223857
-0.0069815787 -0.027541749 -0.0095342239 4868682
-0.0054134019 -0.027669396 -0.0098280758 5328976
-0.0038417168 -0.027971774 -0.010264178 7236973
-0.084942468 4.1534273e-05 0.024244351 7367274
-0.08343216 0.0002678239 0.024244372 6447200
-0.081922524 0.00049398595 0.024244372 6315871
-0.080413543 0.00072006823 0.024244389 6184028
-0.078905232 0.00094597542 0.024244348 5723734
-0.07739757 0.0011719031 0.024244392 6644322
-0.075890571 0.0013977033 0.024244417 7170409
-0.074384235 0.0016233764 0.02424442 6315871
-0.072878689 0.0018473321 0.024243131 5855577
-0.071373805 0.0020711133 0.024241785 5394769
-0.06986957 0.002294773 0.024240412 6578786
-0.068366013 0.0025179728 0.024238762 7629932
-0.066863179 0.0027401643 0.024236372 5855320
-0.065360986 0.0029622766 0.024233997 5789527
-0.06385944 0.0031842203 0.024231559 5855577
-0.062368121 0.0032667886 0.024117634 6906723
-0.060913697 0.0027967941 0.023561221 5854549
-0.059511505 0.0014813895 0.022327306 5920856
-0.058189575 -0.0012158911 0.019985357 2631720
-0.056685083 -0.001080645 0.019912437 4801861
-0.053629071 0.025761425 0.041253962 7440985
-0.052186385 0.025826536 0.041131806 8431965
-0.050743673 0.025891656 0.041009646 8630880
-0.049300939 0.02595677 0.040887486 7780950
-0.047858171 0.026021885 0.040765326 7715418
-0.046415385 0.026086954 0.040643126 9420918
-0.044972569 0.026152078 0.040520955 6596438
-0.043529723 0.026217246 0.040398825 5540428
-0.042086851 0.026282366 0.040276654 7045213
-0.040643957 0.026347488 0.040154483 6649940
-0.039201032 0.026412565 0.040032275 8427357
-0.037758086 0.026477695 0.039910093 10525540
-0.03631511 0.026542822 0.039787915 8500583
-0.034872103 0.026607949 0.039665733 8698220
-0.033429075 0.02667303 0.039543513 8566891
-0.031986021 0.026738165 0.039421324 8827756
-0.030542938 0.026803296 0.039299138 10527852
-0.029099828 0.026868429 0.039176948 10920042
-0.027656691 0.026933564 0.039054759 9352822
-0.02621353 0.026998704 0.038932562 10079628
-0.02477034 0.027063841 0.038810365 9093234
-0.023327125 0.02712898 0.038688168 6991950
-0.021883883 0.027194072 0.03856593 5810497
-0.020440614 0.027259259 0.038443767 7714659
-0.018997319 0.02732436 0.038321521 8634224
-0.017553996 0.027389456 0.038199276 8701298
-0.016110647 0.027454557 0.038077027 8702067
-0.014667272 0.027519656 0.037954777 10133359
-0.013177796 0.0066845454 0.020921316 7642226
-0.011575906 -0.019208087 -0.00021667009 5536324
-0.0099776331 -0.027349425 -0.0069956705 3684408
-0.0084145684 -0.027349172 -0.0071848775 3618615
-0.0068511688 -0.027348908 -0.0073741064 3618615
-0.0052874377 -0.027348664 -0.0075634099 5328976
-0.003723372 -0.027348408 -0.0077527356 8286063
-0.0021589743 -0.027348137 -0.0079420879 5526098
-0.00059424486 -0.02734785 -0.0081314668 3618615
0.00097081962 -0.027347593 -0.0083209109 4539717
0.0025362172 -0.027347365 -0.0085104182 7628133
0.0041019446 -0.027347071 -0.008699921 9791592
0.0056680827 -0.027349416 -0.0088916011 9005417
0.0072434102 -0.02764344 -0.0093203234 7894646
-0.084938101 -0.0023474758 0.024244312 9402488
-0.083424926 -0.0021203011 0.024244284 9402488
-0.081912406 -0.0018931538 0.024244303 9336952
-0.080400556 -0.0016661341 0.024244303 7498860
-0.07888937 -0.0014391942 0.02424432 4473924
-0.077378839 -0.0012123819 0.024244316 6184285
-0.075868979 -0.00098560227 0.024244364 8615028
-0.074359901 -0.00076044479 0.024243195 9009015
-0.072851501 -0.00053565233 0.024241822 8877686
-0.07134375 -0.0003108918 0.024240501 7432810
-0.069836698 -8.6818072e-05 0.024238709 7038566
-0.068330362 0.00013637895 0.024236299 9991284
-0.066824667 0.00035950195 0.024233898 9140087
-0.06531962 0.00058249291 0.024231482 8680307
-0.063815221 0.00080541003 0.024229076 8483956
-0.062322065 0.00087356725 0.024103282 5131854
-0.060866192 0.00037978982 0.023529034 3552822
-0.059464231 -0.00099098065 0.022254368 4013373
-0.058140676 -0.0037239024 0.019891173 2302755
-0.056626536 -0.0034790798 0.019905254 3816246
-0.053436544 0.02576372 0.043091498 7639902
-0.051996063 0.025828717 0.042969529 8828008
-0.050555557 0.025893711 0.042847559 9158513
-0.049115021 0.025958754 0.042725626 8307311
-0.047674462 0.026023755 0.042603653 10276762
-0.046233874 0.026088754 0.042481679 10990228
-0.044793263 0.026153756 0.042359699 7049070
-0.043352623 0.026218757 0.042237721 5995093
-0.041911956 0.026283806 0.042115778 7113306
-0.04047126 0.026348861 0.041993827 8102752
-0.039030541 0.026413865 0.041871842 9089897
-0.037589796 0.026478877 0.04174985 9157997
-0.036149025 0.026543884 0.041627862 7387224
-0.034708224 0.026608938 0.04150591 7320660
-0.033267397 0.026673954 0.041383911 7715159
-0.031826548 0.026738964 0.041261915 8633190
-0.030385669 0.026803982 0.041139916 10855528
-0.028944764 0.026868995 0.041017916 10529642
-0.027503831 0.026934056 0.04089595 8697448
-0.026062874 0.026999077 0.040773943 9814914
-0.024621889 0.027064094 0.040651936 8697446
-0.023180878 0.027129166 0.040529959 6137663
-0.021739841 0.027194185 0.040407948 5875257
-0.020298775 0.027259206 0.040285937 7189583
-0.018857686 0.027324235 0.040163919 7847769
-0.017416568 0.027389258 0.040041901 8309343
-0.015975425 0.027454289 0.039919879 8506722
-0.014534254 0.027519267 0.03979782 8496486
-0.013035815 0.0037354899 0.020444546 7773045
-0.011423982 -0.022345612 -0.00077430066 6911572
-0.0098407967 -0.027352668 -0.0050020739 6380636
-0.0082800984 -0.027352417 -0.0051907822 5197390
-0.0067190696 -0.027352197 -0.0053795543 3618615
-0.0051577101 -0.027351912 -0.0055683167 5460562
-0.0035960174 -0.027351661 -0.0057571428 6512479
-0.0020339948 -0.027351391 -0.0059459955 4539717
-0.00047163884 -0.027351152 -0.0061349124 3618615
0.0010910496 -0.02735085 -0.0063238195 4539460
0.0026540698 -0.027350621 -0.0065128328 6380636
0.0042174226 -0.027350381 -0.0067018676 7234403
0.0057811094 -0.027350124 -0.0068909298 6183257
0.0073452075 -0.027352598 -0.007082249 4342338
0.0089097247 -0.027357202 -0.0072753299 3355443
0.010507519 -0.028307838 -0.008235028 6447714
-0.084933728 -0.0047456999 0.02424421 7695725
-0.083417661 -0.0045174868 0.02424423 7761004
-0.081902258 -0.0042894064 0.024244238 7892590
-0.080387518 -0.0040614009 0.024244254 7367274
-0.078873448 -0.0038335233 0.024244254 4473924
-0.077360041 -0.0036057255 0.024244269 5789527
-0.075847417 -0.0033793235 0.02424326 9335667
-0.074335478 -0.0031534713 0.024241894 9007730
-0.072824202 -0.002927646 0.024240578 9073266
-0.071313649 -0.0027027982 0.024238575 8679279
-0.069803789 -0.002478542 0.024236174 6578272
-0.068294577 -0.0022543655 0.024233788 7827054
-0.066786014 -0.0020303102 0.024231376 9336181
-0.065278098 -0.0018062922 0.024229022 10316651
-0.063770838 -0.0015824907 0.024226569 10644074
-0.062275831 -0.0015289339 0.024088839 8615285
-0.060818505 -0.0020467942 0.023496637 4605510
-0.059416827 -0.0034744071 0.022180337 3815994
-0.058138479 -0.0070011327 0.019192699 4408131
-0.056707762 -0.0082328022 0.018030299 5857359
-0.053244609 0.025765959 0.044923376 8233565
-0.051806323 0.02583088 0.044801638 9223792
-0.050368011 0.025895806 0.044679891 9816972
-0.048929673 0.025960682 0.044558112 11132600
-0.047491312 0.026025612 0.044436362 10399392
-0.046052918 0.026090538 0.044314615 10257525
-0.044614505 0.026155423 0.044192825 7768678
-0.043176059 0.026220351 0.044071071 7050844
-0.04173759 0.026285239 0.043949276 7581025
-0.040299091 0.026350217 0.043827556 8371819
-0.038860571 0.026415154 0.043705791 8701554
-0.03742202 0.026480047 0.043583989 8308846
-0.035983447 0.026544983 0.043462228 7191901
-0.034544844 0.026609924 0.043340459 7058515
-0.033106215 0.026674813 0.043218654 7256149
-0.03166756 0.026739711 0.043096844 8436324
-0.030228881 0.026804656 0.042975068 10397802
-0.028790172 0.026869597 0.042853292 9024104
-0.027351439 0.026934545 0.042731512 7581025
-0.025912676 0.02699949 0.042609736 9220479
-0.024473891 0.027064346 0.042487878 7841373
-0.023035077 0.027129292 0.042366095 6071102
-0.021596238 0.027194245 0.042244308 6334015
-0.020157371 0.027259152 0.04212248 6729541
-0.018718477 0.027324151 0.042000726 7387727
-0.017279558 0.027389061 0.041878894 7849557
-0.015840612 0.027453966 0.041757066 7718229
-0.014400604 0.025172299 0.039750054 7381338
-0.012893051 0.00077021454 0.019965163 8035198
-0.011271188 -0.025501074 -0.0013351056 8025688
-0.009704317 -0.027364349 -0.0030213566 10382701
-0.0081459666 -0.027363868 -0.0032093776 6249307
-0.006587374 -0.027355421 -0.0033910375 3684408
-0.0050283801 -0.027355138 -0.0035793008 3881787
-0.003469053 -0.027354889 -0.0037676285 4079166
-0.0019093958 -0.02735462 -0.0039559826 4144959
-0.00034940615 -0.027354432 -0.0041444381 4210752
0.0012109131 -0.027354131 -0.004332846 4276545
0.0027715641 -0.027353903 -0.0045213602 4144959
0.0043325461 -0.027353618 -0.0047098594 3815994
0.00589386 -0.027353363 -0.0048984219 3684408
0.0074555203 -0.02735365 -0.0050874674 3618615
0.0090177013 -0.027359523 -0.0052810605 3618615
0.010583833 -0.027468303 -0.0055577946 3289650
-0.084929332 -0.0071530174 0.024244172 5000011
-0.08341036 -0.0069238651 0.024244174 5066061
-0.081892066 -0.0066948403 0.024244156 4539717
-0.080374427 -0.006465849 0.024244193 4934475
-0.078857459 -0.0062369849 0.02424421 4342338
-0.077341266 -0.0060093319 0.024243353 4539717
-0.075825788 -0.0057824142 0.024241989 6446943
-0.074310966 -0.0055556237 0.024240607 6184285
-0.072796889 -0.0053298534 0.024238497 5329233
-0.071283489 -0.005104532 0.0242361 7432553
-0.069770746 -0.0048793429 0.024233686 6512479
-0.068258651 -0.0046542333 0.024231287 4671303
-0.066747211 -0.0044292458 0.024228863 4605510
-0.065236419 -0.0042042951 0.024226498 7104359
-0.063726284 -0.0039795139 0.024224069 9729397
-0.062229414 -0.0039406461 0.024074409 9926262
-0.060770631 -0.0044828472 0.023464171 6183257
-0.059369788 -0.0059766783 0.022099102 3750201
-0.058033094 -0.0086220857 0.019819893 4210752
-0.054489322 0.025703451 0.046871293 6316867
-0.053053256 0.025768209 0.046749704 12372830
-0.051617157 0.025833063 0.046628185 14281617
-0.050181035 0.025897866 0.046506632 13689264
-0.048744891 0.025962628 0.046385035 9938313
-0.047308717 0.026027488 0.046263508 9079146
-0.045872517 0.0260923 0.046141945 10847070
-0.044436287 0.026157107 0.046020385 9414511
-0.043000035 0.026221924 0.045898817 7321185
-0.041563757 0.02628674 0.045777246 7061083
-0.040127449 0.026351605 0.045655709 7521634
-0.038691115 0.026416417 0.045534141 7522150
-0.037254758 0.026481237 0.045412563 8833912
-0.035818372 0.026546059 0.045290984 8897138
-0.034381963 0.026610881 0.045169402 8567147
-0.032945521 0.026675701 0.045047823 9027953
-0.03150906 0.026740527 0.044926237 9027184
-0.030072568 0.026805352 0.044804651 9157232
-0.028636051 0.02687018 0.044683062 7648608
-0.027199509 0.026935006 0.044561476 7845485
-0.02576294 0.026999835 0.044439878 9483655
-0.024326343 0.027064668 0.044318285 7181147
-0.02288972 0.027129501 0.044196684 7447131
-0.021453071 0.02719433 0.04407509 8105824
-0.020016396 0.027259165 0.043953486 8501091
-0.018579695 0.027324002 0.043831881 8896104
-0.017142968 0.027388841 0.043710276 8439395
-0.015706213 0.027453627 0.043588635 6995279
-0.014266133 0.022360871 0.039337695 6265164
-0.0127495 -0.0022114699 0.019483101 8363145
-0.011123989 -0.027365062 -0.00084996992 6255446
-0.009568329 -0.02736441 -0.001037318 6051928
-0.0080123348 -0.027364718 -0.0012254856 4210752
-0.0064559998 -0.027365578 -0.0014141245 3684408
-0.0048993491 -0.027365156 -0.0016017803 7366246
-0.0033424729 -0.027358161 -0.001784209 8416107
-0.0017851738 -0.027357895 -0.0019720653 8481643
-0.00022754652 -0.027357614 -0.0021599482 8547179
0.0013304125 -0.027357405 -0.0023479373 8612715
0.0028887012 -0.027357137 -0.002535911 6578015
0.0044473191 -0.027356848 -0.0027239167 4079166
0.0060062669 -0.027356595 -0.0029119807 3684408
0.0075655482 -0.027356321 -0.0031000774 3684408
0.0091253072 -0.027360614 -0.0032918837 3684408
0.010685473 -0.027366482 -0.0034849963 3618615
0.012273348 -0.028106486 -0.004269171 6050129
-0.084924921 -0.0095695909 0.024244111 7432810
-0.083403036 -0.0093394518 0.02424413 7630189
-0.081881829 -0.0091094403 0.02424413 6972773
-0.080361292 -0.0088795042 0.024244141 7301224
-0.078841507 -0.0086506419 0.024243396 5460819
-0.077322468 -0.0084226569 0.024242032 4671303
-0.075804077 -0.008194753 0.024240687 4671303
-0.074286461 -0.0079681063 0.024238432 4671303
-0.072769508 -0.0077417716 0.024236005 4671303
-0.071253218 -0.0075155222 0.024233598 6710115
-0.069737576 -0.0072893947 0.024231166 6446943
-0.068222582 -0.007063299 0.024228785 4539717
-0.066708259 -0.0068373783 0.024226349 4408131
-0.065194577 -0.0066114892 0.024223965 4605253
-0.06368155 -0.0063857222 0.024221554 4868682
-0.062184058 -0.0063800369 0.024045443 5263183
-0.060722571 -0.0069285859 0.023431517 5986135
-0.059322555 -0.0084892511 0.022017537 6183514
-0.057979621 -0.011096013 0.019775873 5723734
-0.054296371 0.025705777 0.048691843 7500629
-0.052862484 0.025770511 0.048570517 12633208
-0.051428575 0.025835201 0.048449147 12764298
-0.049994636 0.025899891 0.048327778 12236158
-0.048560668 0.025964629 0.048206441 12893811
-0.047126681 0.026029322 0.048085067 15058553
-0.045692664 0.026094016 0.047963694 15125114
-0.044258617 0.0261588 0.047842395 14085248
-0.042824548 0.026223497 0.047721013 12906093
-0.041390449 0.026288195 0.047599629 12184167
-0.039956328 0.026352942 0.047478281 11527270
-0.03852218 0.026417643 0.047356896 10739045
-0.037088003 0.026482344 0.047235508 11393149
-0.035653803 0.026547095 0.047114152 10668405
-0.034219574 0.026611799 0.046992756 9879406
-0.032785319 0.026676552 0.046871398 10144122
-0.031351041 0.026741259 0.046750002 8634735
-0.029916734 0.026806014 0.046628639 7584096
-0.0284824 0.02687077 0.046507273 6926934
-0.027048042 0.026935482 0.046385869 7912301
-0.025613656 0.027000241 0.046264499 8830075
-0.024179244 0.027064955 0.046143092 8429926
-0.022744806 0.027129669 0.046021681 8820581
-0.021310342 0.027194427 0.045900311 9023077
-0.019875852 0.027259145 0.045778897 10336880
-0.018441334 0.027323911 0.045657516 10993017
-0.017006792 0.02738863 0.045536097 9423986
-0.015572222 0.027453352 0.045414675 7388503
-0.014130944 0.01953442 0.038923126 5934920
-0.012605154 -0.0052096057 0.018998405 8954781
-0.010986054 -0.027367003 0.0011260253 4542017
-0.0094327461 -0.027366346 0.00093916949 5394769
-0.0078791091 -0.027365673 0.00075228699 5723220
-0.0063251448 -0.027365126 0.00056526688 5789013
-0.0047708349 -0.027365966 0.00037709362 8810608
-0.0032161912 -0.027366841 0.00018886155 8416107
-0.0016612359 -0.02736643 1.6078001e-06 8284778
-0.00010605563 -0.027360898 -0.0001815811 8219242
0.0014495465 -0.027360596 -0.00036899833 8153449
0.0030054813 -0.02736037 -0.00055651652 7760490
0.0045617428 -0.027360084 -0.00074402423 6249050
0.0061183353 -0.027359875 -0.00093163282 6314843
0.0076752589 -0.027359607 -0.001119226 6380636
0.0092325862 -0.027361702 -0.0013087695 6446429
0.010790384 -0.027367488 -0.0015012986 6512222
0.012375374 -0.028090829 -0.0022695812 7432039
-0.084812604 -0.010908047 0.025095601 10189434
-0.083395682 -0.01176432 0.024244089 8153963
-0.081871554 -0.011533311 0.024244094 8811122
-0.080348171 -0.01130319 0.024243494 9989999
-0.078825548 -0.011074186 0.024242094 8416878
-0.077303588 -0.010845209 0.024240743 6578529
-0.075782411 -0.010617686 0.024238341 6052699
-0.074261889 -0.010390338 0.024235882 5395026
-0.07274203 -0.010163017 0.024233472 4605510
-0.071222819 -0.0099357748 0.024231076 4408131
-0.069704272 -0.0097086653 0.024228666 4408131
-0.068186387 -0.0094816312 0.024226267 4408131
-0.066669151 -0.0092547238 0.024223847 4408131
-0.065152571 -0.0090278955 0.024221443 4473924
-0.063636653 -0.0088011473 0.024219057 4539717
-0.062138733 -0.008832138 0.024013923 5460819
-0.060674317 -0.0093839299 0.023398761 9530733
-0.059275128 -0.011012194 0.021935621 7628390
-0.057924315 -0.013553327 0.01975253 5000011
-0.054104004 0.025708143 0.050506897 8420962
-0.052672297 0.025772711 0.050385721 11250545
-0.051240556 0.025837377 0.050264612 13485193
-0.049808796 0.025901949 0.050143432 15323279
-0.048377007 0.02596657 0.050022282 16443037
-0.046945192 0.026031192 0.049901132 16765078
-0.045513351 0.026095815 0.049779981 16774057
-0.044081483 0.026160445 0.04965882 16777119
-0.042649593 0.026225023 0.049537629 16777109
-0.041217674 0.026289649 0.049416471 16777103
-0.039785724 0.026354326 0.049295347 16711563
-0.038353756 0.026418908 0.049174145 16580491
-0.036921754 0.026483539 0.04905298 16185750
-0.035489731 0.026548171 0.048931815 15331976
-0.034057681 0.026612805 0.048810646 14674562
-0.032625604 0.026677445 0.04868947 15004813
-0.0311935 0.02674208 0.048568297 13889142
-0.02976137 0.026806718 0.048447121 12707167
-0.028329216 0.026871311 0.048325907 11985509
-0.026897036 0.02693595 0.048204727 12051323
-0.025464827 0.027000591 0.048083544 11917951
-0.024032593 0.027065234 0.04796236 11975539
-0.022600332 0.027129883 0.047841169 11186283
-0.021168046 0.027194481 0.047719944 10465886
-0.019735733 0.027259128 0.047598753 13222257
-0.018303394 0.027323822 0.047477599 13684093
-0.01687103 0.027388424 0.047356367 12706678
-0.015438638 0.027453074 0.047235169 11064412
-0.013995033 0.016692817 0.03850631 5801798
-0.012460008 -0.0082244296 0.018510973 9546415
-0.010848538 -0.02736897 0.0030959919 4870725
-0.0092975711 -0.027368266 0.0029096697 9858413
-0.0077462806 -0.02736759 0.0027232789 9989485
-0.0061946614 -0.027366947 0.0025368298 9662576
-0.0046427199 -0.027366238 0.0023503862 5526355
-0.0030904363 -0.027366363 0.0021632493 4079166
-0.0015378121 -0.027367219 0.0019754823 4013373
1.5147177e-05 -0.027368104 0.0017876514 3947580
0.0015684104 -0.027367756 0.0016007676 4671046
0.0031219511 -0.027365414 0.0014154249 9138288
0.0046758195 -0.0273633 0.001229876 10576996
0.0062300619 -0.027363086 0.0010427594 10512231
0.0077846311 -0.027362768 0.00085569563 10381930
0.0093395403 -0.027362758 0.00066834013 10382187
0.010895723 -0.027389513 0.00045956238 10381930
0.012482096 -0.028208621 -0.0003828186 10383986
-0.084619075 -0.011426982 0.026588092 7500402
-0.083177328 -0.012017922 0.025946354 6842472
-0.081753068 -0.012823453 0.025136702 5263440
-0.080332793 -0.013712357 0.024261473 5855063
-0.078809537 -0.013507217 0.024240663 9139316
-0.077284776 -0.013278674 0.024238223 9270388
-0.07576067 -0.013050205 0.024235794 9204852
-0.074237227 -0.012821817 0.024233382 7695468
-0.072714433 -0.012593508 0.024230987 5263440
-0.071192309 -0.012365325 0.024228571 4342338
-0.069670849 -0.012137271 0.024226135 4671303
-0.068150043 -0.011909298 0.024223715 4934475
-0.066629894 -0.011681403 0.024221312 5065804
-0.065110415 -0.011453636 0.024218889 4934475
-0.063591585 -0.011225948 0.024216482 4802889
-0.062093228 -0.011293962 0.023982251 4605510
-0.06062587 -0.011848965 0.023365906 3750201
-0.059252843 -0.013949215 0.021536605 5525584
-0.057866815 -0.015987566 0.019754777 8679279
-0.053999558 0.024218127 0.051144548 8750176
-0.0525559 0.024476683 0.051175639 6257726
-0.051113039 0.024735194 0.051206801 7963220
-0.049670994 0.024993479 0.051237877 8946523
-0.04822975 0.025251679 0.05126898 9143647
-0.046789315 0.025509696 0.051300038 11180917
-0.045349684 0.025767585 0.05133108 8885594
-0.043910857 0.026025286 0.051362086 10134382
-0.042475168 0.026226616 0.051348802 9017430
-0.041045416 0.026291125 0.051227827 12634745
-0.039615642 0.026355641 0.051106848 12765563
-0.038185842 0.026420152 0.050985873 16777135
-0.036756013 0.02648467 0.05086489 16777132
-0.035326157 0.026549233 0.050743949 16383896
-0.033896279 0.026613748 0.050622966 15989651
-0.032466374 0.02667827 0.050501976 16514211
-0.03103644 0.026742836 0.050381027 16382875
-0.029606482 0.026807357 0.050260037 16317838
-0.028176498 0.026871882 0.050139043 16449415
-0.026746485 0.026936451 0.050018087 16449433
-0.025316449 0.027000928 0.049897052 16119709
-0.023886386 0.027065504 0.049776088 15722637
-0.022456298 0.027130032 0.049655091 14806910
-0.021026181 0.027194606 0.049534127 13687911
-0.01959604 0.027259093 0.049413081 13815411
-0.018165873 0.027323669 0.04929211 14607219
-0.016735679 0.0273882 0.049171105 15660916
-0.01530546 0.027452786 0.049050126 15200110
-0.013858392 0.013836015 0.038087301 5669699
-0.012314055 -0.011255947 0.018020893 9152678
-0.010711437 -0.027370891 0.0050600246 4276545
-0.0091628069 -0.027370181 0.0048741936 6774880
-0.0076138526 -0.027369505 0.0046882988 6709344
-0.0060645719 -0.027368858 0.0045023412 6117721
-0.0045149676 -0.02736819 0.0043163514 4210752
-0.0029650384 -0.027367512 0.0041303406 3684408
-0.0014147843 -0.027366819 0.0039443038 3684408
0.00013582539 -0.02736761 0.003757044 4671046
0.0016867688 -0.027368477 0.0035696779 7825769
0.003238043 -0.027369332 0.0033822902 10184294
0.0047896192 -0.027369039 0.0031957708 10184037
0.0063415063 -0.027368169 0.0030096751 8613486
0.0078936797 -0.027366061 0.0028245228 7169381
0.0094462307 -0.027365768 0.0026378871 6643808
0.011001379 -0.027429329 0.0024003477 5854806
0.012588975 -0.028337963 0.0014893543 5855063
-0.084489129 -0.01258738 0.027578758 4605510
-0.083024792 -0.012948378 0.02711767 6579300
-0.081562907 -0.013354916 0.026620915 7105644
-0.080116265 -0.013948987 0.025977938 7039851
-0.078684874 -0.014743721 0.025178339 5395026
-0.077258416 -0.015636515 0.024301913 4737096
-0.07573884 -0.015491999 0.024233323 4737096
-0.074212462 -0.015262716 0.024230853 4408131
-0.072686739 -0.015033419 0.024228472 4408131
-0.071161687 -0.014804292 0.024226028 4342338
-0.069637291 -0.01457525 0.024223609 5986906
-0.068113565 -0.01434633 0.024221163 8942708
-0.066590495 -0.014117443 0.02421877 10449265
-0.065067939 -0.013886651 0.024217946 10710124
-0.063545987 -0.013654946 0.024217915 10579823
-0.062044919 -0.013726251 0.023981156 10775917
-0.060597043 -0.014630329 0.023093238 5591891
-0.059318312 -0.018308016 0.020035695 4079166
-0.057807658 -0.018407393 0.019775607 6315357
-0.053943161 0.021898381 0.051135421 9868139
-0.052496716 0.022158161 0.051166635 9283682
-0.051051084 0.022417758 0.051197805 6853955
-0.049606264 0.022677219 0.051228967 6392894
-0.048162248 0.022936545 0.051260117 5734967
-0.046719044 0.023195695 0.05129122 5142834
-0.045276646 0.023454705 0.051322319 4091426
-0.043835055 0.023713587 0.051353402 7965784
-0.042394269 0.023972329 0.051384486 6062657
-0.040954292 0.02423094 0.051415555 5996863
-0.039515115 0.024489418 0.051446613 5668412
-0.038076747 0.024747714 0.05147763 5142325
-0.036639184 0.025005829 0.051508598 4681774
-0.035202421 0.025263855 0.051539592 3892772
-0.03376646 0.025521701 0.051570546 5074483
-0.032331303 0.025779465 0.051601518 7833176
-0.030896943 0.026037043 0.051632453 8751456
-0.029463386 0.02629449 0.051663369 9410920
-0.028030628 0.026551751 0.051694248 8360277
-0.02659867 0.026808931 0.051725149 9149025
-0.025168521 0.027001329 0.051705118 13422992
-0.023740621 0.027065784 0.051584344 13619336
-0.022312697 0.027130244 0.051463563 12961911
-0.020884747 0.02719466 0.051342744 16383893
-0.01945677 0.027259119 0.051221963 15197848
-0.018028768 0.027323583 0.051101178 13290869
-0.016600739 0.027387997 0.050980356 14343552
-0.015172685 0.027452465 0.050859563 14804361
-0.013721015 0.010963826 0.037666027 5340736
-0.012167281 -0.014305903 0.017526878 8298902
-0.010574752 -0.027372826 0.0070181023 3552822
-0.0090284506 -0.027372159 0.0068327244 3552822
-0.0074818246 -0.027371475 0.0066473205 3552822
-0.0059348773 -0.027370825 0.0064618532 3552822
-0.004387605 -0.027370105 0.0062763914 3618615
-0.0028400086 -0.027369421 0.0060908715 4276545
-0.0012920862 -0.027368769 0.0059052878 5197133
0.00025615745 -0.027368054 0.0057197153 6775137
0.0018047399 -0.027367979 0.0055335923 9137774
0.0033536737 -0.027368831 0.0053466959 9791592
0.0049029393 -0.027369715 0.0051597413 8612715
0.006452533 -0.027370581 0.0049727545 6117978
0.0080024246 -0.0273703 0.0047866357 4868425
0.009552625 -0.02736944 0.0046009412 4144959
0.011107396 -0.027487656 0.0043206792 3355443
0.012695567 -0.028466981 0.0033564919 5460048
-0.084424786 -0.014416658 0.02805149 8352627
-0.082925074 -0.014427752 0.027862661 8089198
-0.081433788 -0.014532266 0.027601324 6052699
-0.079963818 -0.01487723 0.027153365 6579300
-0.078498021 -0.015288414 0.026653795 9012613
-0.077046826 -0.015889736 0.026006371 9865866
-0.075608023 -0.016669424 0.025220076 6710886
-0.07417535 -0.017566118 0.024342461 4473667
-0.072658941 -0.01748281 0.024225902 5000011
-0.071130939 -0.017252695 0.024223473 4868682
-0.069603607 -0.017022653 0.024221055 4802889
-0.068076707 -0.016789667 0.02422102 4737096
-0.066550486 -0.016556708 0.024221033 6250078
-0.065024942 -0.016323883 0.024221033 9401974
-0.063504681 -0.016158463 0.02416862 8352113
-0.062003911 -0.016280537 0.023892332 8219242
-0.060588088 -0.017736405 0.022576759 6906209
-0.05927993 -0.021027759 0.019829851 3552822
-0.057750061 -0.020866115 0.019773318 4079166
-0.053886551 0.019569585 0.051126231 9667680
-0.052437313 0.019830545 0.051157523 11117673
-0.05098889 0.020091318 0.051188774 8628059
-0.04954128 0.020351913 0.051219981 8692320
-0.048094481 0.020612421 0.05125121 8821609
-0.046648499 0.020872699 0.051282361 7571299
-0.045203324 0.021132896 0.051313538 6716756
-0.043758959 0.021392951 0.051344708 7509084
-0.042315405 0.021652825 0.051375832 8756322
-0.04087266 0.021912519 0.051406916 10200430
-0.039430723 0.022172175 0.051438056 10332016
-0.03798959 0.022431599 0.051469121 9675368
-0.036549266 0.022690941 0.051500209 9018466
-0.035109751 0.022950094 0.051531255 8625246
